# 3D point list with one line of data per point:
#   POINT3D_ID, X, Y, Z, R, G, B, ERROR, TRACK[] as (IMAGE_ID, POINT2D_IDX)
# Number of points: 372, mean track length: 4.2727831251279955
2100 0.46805086011490926 2.1954555244478193 4.0372858125503237 163 152 127 0.59897990348051189 19 7549 51 9248 22 6734 18 5258 50 7727 49 5514
2101 1.0568486167337805 2.4795721719872659 4.3602179413756126 25 51 64 0.8422340348109002 23 8119 51 9255 22 7300 18 6626 50 7752 19 6819 49 5558 48 8828
2102 -0.15692237892232683 2.1160045748482332 3.771786243546337 83 92 57 0.41646799215273778 23 8109 51 9266 22 6729 19 8049 18 6098
2103 0.036407889006376315 2.1868222346466095 3.8714833107135465 151 131 48 0.80972404826778266 23 7321 51 9267 22 6738 18 6108 50 8172 49 5955
2104 2.0330503782782445 3.0974096686853803 5.3405630152867367 172 163 144 0.40554478762009211 19 7608 51 9270 50 7771 49 6032 48 9432 47 8919
2105 -0.15698494508687438 2.2077871519577377 3.8119607993614992 74 84 47 0.20609617122394522 19 7553 51 9276 22 5955 23 7338 18 5270 50 7743
2106 1.6831036762260583 3.2022114611807742 5.2522070593273025 179 165 152 0.55809895702151158 23 8151 51 9285 22 6809 19 7621 18 6171 50 8210 49 6038 48 9431
2107 2.009751982563599 3.3961858979640538 5.2873997766573018 171 164 148 0.24301614226362386 23 8166 51 9296 50 7813
2108 2.1009903664212888 3.4565673881465195 5.2756112484852915 142 145 149 0.69777525813459118 23 8176 51 9299 50 8236
2109 1.0237212499522013 3.2213271909664596 5.1706595853109665 22 35 54 0.48688356936770161 23 8165 51 9304 22 6087 18 5398 50 7796 49 5607 48 8895
2110 1.2390398509730138 3.3029302905788929 5.2049249028842661 94 87 87 0.54799339449936368 19 7632 51 9306 50 7804 49 6034
2112 1.3114405293015206 3.5269310274933652 5.2727025334317688 103 102 100 0.74874952317173182 23 8183 51 9314 22 6848 19 8134 50 8238 49 6325
2113 -0.27259593987911279 2.7513543279363732 3.9710801906794466 90 87 80 1.2154318291622548 23 8179 51 9321 22 6803 18 5369
2114 0.93620434785351814 3.5654376878337115 5.0962832610157109 96 98 104 0.7065225099075958 23 8194 51 9326 22 7358 18 6681
2115 -0.038714995980062478 3.3555062220227425 4.9323155682199014 70 65 58 0.76552160300276972 19 6949 51 9331 18 5428 50 7835 49 5593 48 8856
2116 -0.056496427921101156 3.3767037553839749 4.9247979621238391 89 80 81 0.43260749279127464 19 6954 51 9335 22 6123 23 7494 18 5432 50 7838 49 4959 48 8065
2117 -0.081940773271377526 3.4838137613549662 4.9024543017587439 94 83 81 0.4190727643029008 19 7671 51 9348 22 6862 18 5451 50 7856 49 5611 48 8878
2118 0.37917090891562699 3.6691100432333843 4.9999841903978997 83 82 80 0.75557930371667348 23 8206 51 9349 50 8256
2119 -0.84932660083708966 3.9289441192223218 5.516416047500365 210 191 161 0.078391529567711837 23 8211 51 9354 50 7861
2120 -0.70454932172076346 -2.7657445244910401 9.4608250530204501 29 30 60 0.65121376436048939 23 7648 22 6290
2121 -0.1999681875264015 -2.1893463381608513 9.0424462849205245 120 134 164 0.32855842868716589 23 7691 51 9407 21 6624
2122 0.60170419431790689 -0.64911167676744741 3.8820366886479243 78 108 134 0.85238629377899233 23 6726 51 9422 21 5401
2124 0.77784254872693193 -0.59866138296975357 3.942473761919294 71 107 133 0.38328971930376143 19 7180 23 7743 51 9431
2125 -0.32559129317715885 -0.60579990403346251 4.0562563414157875 141 110 123 0.3955039934814033 19 7825 51 9434 22 7021 18 5713 50 8292
2126 0.56108292785251379 -0.51632422806195644 3.8891742050232385 84 98 137 0.6064971888336953 23 7763 51 9441 21 6167
2127 -0.17883300151455078 -0.45799942403427424 3.6386479847312816 32 35 52 0.41149567464627895 23 8390 51 9447 21 7206
2128 0.91854185770813024 -0.44921640659925927 3.9643933373793501 83 95 145 0.46836571240603064 23 7794 51 9456 49 5757 21 6198
2129 -0.097129411821376938 -0.39020385402790464 3.6190401152417819 160 66 5 0.58365656354334428 23 7775 51 9463 22 6378 21 6710
2130 0.65439991419011001 -0.38033099492024408 3.9162536832778678 119 130 175 0.69058190278400389 19 7219 22 6401 18 4784 50 7961 49 6112 48 9116
2132 0.72357219863635602 -0.23350109783683642 3.9364281650695925 104 114 175 0.38750546870149261 23 7842 51 9499 22 5531 18 4838 49 5788
2133 0.59876151413165368 -0.21789951416633985 3.9022538421497504 66 76 138 0.32170617192687812 23 7844 51 9501 49 6136
2134 -0.01652216721236377 -0.17346468786545621 3.6029435224415027 37 14 20 0.50759774825058701 19 7258 51 9503 22 6439 18 5784 49 6123 21 6762
2135 0.0092397070558327687 0.034599616838336428 3.5736226455708406 165 170 163 0.46483787726492609 23 7878 51 9523 18 5817 50 8004 21 6785
2136 1.2128789996789746 0.20391525403898103 3.4143834878676147 99 141 189 0.18688386001925805 23 7914 51 9532 18 5842 50 8343
2137 -0.024933573330892689 0.18470982478613934 3.610747885961521 144 151 175 1.0155678839919249 23 6969 51 9541 22 7110 18 4899 19 6421
2138 1.2514765293959478 0.69454197070020962 3.6819149067812726 103 95 86 0.47923722622369502 23 7957 51 9551 18 5894
2139 1.9689279527437122 0.78486995777432744 3.8781096765318082 19 4 12 0.85044877578911382 23 7970 51 9553 22 6561 19 7373 18 5912 49 6424
2140 1.0637319543326749 0.72130949039263093 3.6215979829912022 105 100 96 0.96312514525365034 23 7963 51 9555 18 5896 19 7929 50 8566
2141 1.1338180738744184 0.75778195798297521 3.6431234602008051 142 137 132 0.50544873159145987 23 7968 51 9559 22 6548
2142 1.1126363860237722 0.79591056360373669 3.6558947181414823 51 42 38 0.37817495591731287 23 8519 51 9562 18 5914 22 6559
2143 -0.3481430676969986 0.64418777206385092 3.0361937752335604 28 28 36 1.1753450297331165 23 8511 51 9563 22 7131 50 8564
2145 0.38546119118160793 0.85007035636210482 3.4217257295429535 1 0 2 0.66982013135949658 23 8528 51 9572 22 5692 19 6523 18 5923 21 7076
2146 1.387993182168636 1.0972292140352968 3.8403130913080186 128 124 122 0.39818878048421308 19 7967 23 8020 51 9582 22 6603 18 6508 50 8380
2147 1.854429011957631 1.16642683650762 4.0169555361497684 125 63 65 0.70078666371376419 19 8338 49 6641
2148 -0.16057999540186038 0.91139249773588582 3.2953088979009442 25 19 19 0.60797599650769363 23 8003 51 9585 22 6572 18 5933 21 6832
2149 1.143626764709277 1.1133774552704505 3.7939624679615496 139 131 130 0.83531519660203823 19 7968 51 9586 22 7181 23 8543 18 6509 50 8381
2150 0.54381526561126092 1.0708889138528126 3.5906437008892924 0 0 36 0.55918019646679862 23 8542 51 9588 22 7178
2154 0.85423191657967201 1.510367095241361 3.849673634066082 154 151 146 0.74151420555924086 23 8567 51 9603 22 6653 19 7461 18 6013 50 8123
2155 -0.15163777522325883 1.3163925065420377 3.4465408603564121 37 24 6 0.46659415038247398 19 7984 51 9605 22 7197 18 6533 50 8110 49 5876
2156 0.71040432369132755 1.5058070127229954 3.8200418136755352 58 62 69 0.97239381478082776 51 9606 22 7213 19 8000 18 6549
2157 0.5594922041871504 1.5522021387140463 3.7723952035164561 159 155 156 0.83135511828107811 23 8060 51 9611 18 6022 50 8126
2160 0.82839081855113006 1.9298870301362783 4.0782732687708672 192 185 20 0.72768524240991539 19 7519 23 8594 51 9627 22 6700 18 6072 50 8150 49 5487 48 8768 21 6861
2161 1.2308810352646873 2.053838684538011 4.232163472681056 132 150 123 0.55279833920682375 19 8037 51 9628 22 6714 23 8084 18 6586
2163 0.53375287615579492 2.0233894586240604 4.0007179604018539 145 122 80 0.83654138028940983 23 8599 51 9634 22 7258 19 8395 50 8423
2164 1.3375008995542186 2.2852697604818757 4.3494339902818728 99 120 98 0.86204219670719839 23 8609 51 9635 50 8436
2165 0.27088000668458423 2.0324454337770104 3.9221298421341957 8 3 6 0.43350115572609943 23 8602 51 9639 22 6725 19 7535 18 6089 50 7713
2166 0.567273081267336 2.2008190075274507 4.1015035895809104 166 145 100 0.5478915367584366 19 8055 23 8612 51 9642 22 7277 18 6602 50 8437 49 6496
2167 1.1071904357868423 2.4090911905179309 4.3696292682878726 160 151 135 0.78379564363539811 19 8070 23 8621 51 9644 22 7292 50 8448
2168 0.56791829310499775 2.2587174358027107 4.1299090262192122 164 142 95 0.68991332049990317 19 8060 23 8105 51 9647 22 7283 18 6609 50 8440 49 6500
2169 -0.056063550012651092 2.1069813110686511 3.8332406302190001 9 3 0 0.93181183877006646 23 8102 51 9654 22 7270 18 6097
2170 0.64215939814988265 2.3863840569568411 4.2245891305592442 155 141 130 0.57439210796447115 19 8069 51 9655 22 7294 18 6619 50 8450
2171 -0.29380192147303169 2.0611125596790996 3.6818950380410236 57 52 46 0.89131237931541729 23 8104 51 9659 22 7268 18 6595
2172 -0.016873780072144462 2.1652277992705051 3.8452965015034155 161 139 34 0.47636779631291065 19 7548 23 8622 51 9660 22 6737 18 6107 50 8170 49 5953
2173 -0.26474572936610108 2.1008739288461373 3.7176985398968059 120 113 107 0.29856753461269081 22 7602 18 6918 19 8401 50 8621
2174 -0.015870306027390924 2.2124752065769107 3.8707322393747634 161 138 42 0.67188164265426009 51 9667 22 6743 19 7552 18 6111 50 8175 23 8115
2175 -0.15377589925468499 2.1710808188769741 3.800375530403072 57 65 24 0.16092895067021568 19 8057 51 9668 22 7281 18 6606
2176 0.57107323687511846 2.4713842828627683 4.2177089076311551 162 143 100 0.96372468198508476 23 8130 51 9673 22 7304 19 8079 18 6628 50 8454
2177 -0.014915326048743516 2.2663967484230563 3.8868444269808111 159 132 26 0.86855721167597033 23 8636 51 9675 22 7289 50 8183
2178 0.67878601060520116 2.553055146043091 4.3177330160336336 54 14 10 0.99251207352347326 19 8085 23 8647 51 9676 22 6760 18 6631 50 8196 50 8458
2179 0.72774644518399378 2.5616458007803646 4.3037928686942202 127 73 57 0.40663082586876759 23 8648 51 9677 50 8198
2180 0.47399047638668534 2.5280746452751597 4.1727111418799376 94 58 54 0.37536606647549803 23 8654 51 9679 22 7309 19 8084 18 6633 50 8463
2181 0.50145263064622492 2.5661936673643737 4.2051166212101485 154 145 127 0.50572647062207443 23 8133 51 9681 22 7312
2182 2.1509370613542775 3.2934017342665625 5.314339078770546 179 172 154 0.53510120584053067 23 8671 51 9682 22 6818 18 6179 50 8216
2183 0.32701877991645811 2.5911979520105279 4.1579420075511369 143 138 129 0.32891815303135141 23 8137 51 9690 22 6766 19 8089 18 6137
2184 0.15549248625530226 2.6714913607544584 4.1040278876853158 30 31 33 0.5341575917047805 23 8673 51 9694 22 7317 19 8096 18 6641 50 8473
2185 1.099320228766933 3.3112231054808086 5.1738604887308286 135 147 159 0.42974273231773097 19 8121 51 9696 22 7344 18 6665 50 7807 49 6030 48 9417
2186 0.92109951774808596 3.2831301156047807 5.1430036146942353 24 62 85 0.57997613647754287 19 7631 51 9698 22 7342 18 6186 18 6662 50 8220 48 9408 49 6019
2187 0.068044301030398879 2.6886347927946002 4.0825464036600616 59 42 32 0.31895378642921279 23 8678 51 9699 22 6785 19 7601 18 6151
2188 -0.050176282250084442 2.6651555706529551 4.040707346700886 140 131 124 0.50382842014329976 23 8680 51 9702 22 7319 19 8097 18 6642 50 8475 49 6276
2189 -1.2620617984218618 3.487400506939665 6.4984217001067988 196 175 148 0.70551970596569313 23 8682 51 9707 50 8197 21 7131
2190 2.5398471731331269 3.8468022812705187 5.249326786731273 128 111 85 0.73142610297911326 23 8700 51 9711 22 7363 19 8148 18 6686
2191 0.32478464219729009 3.5422206555355635 4.9913453930507625 102 97 91 0.49871496684881267 19 8139 51 9723 50 8251 49 6318
2192 0.30476605560683379 3.6823729893817205 4.9165956634294252 18 19 14 0.76694330865704552 51 9729 22 6866 19 6983 18 6229 50 7865
2193 0.58224899960794441 -0.82744837416317796 3.8783775698419514 145 155 189 0.85124180995423981 23 8346 51 9779 22 6313 18 5661 21 6978
2194 0.69366864683346108 -0.82916952960314405 3.9171521245411856 142 147 184 0.81252075607647301 19 7786 23 8350 51 9780 22 6974 18 6333 21 7188
2195 1.6885091718829734 -0.8189656729516821 4.1467167838487287 133 123 132 0.38338679139013837 19 8237 51 9785 22 6995 18 6345 49 6547 48 9939
2196 0.656069287818145 -0.67363438910364382 3.9039745915551261 61 106 125 0.58229110754697533 23 8364 51 9795 22 7001 18 6352 50 8507 49 6344
2197 0.85612057386820239 -0.65889907517142454 3.9444886301316839 103 130 159 0.39516752538394062 19 7813 51 9798 18 6356 49 6347 21 6995
2198 0.70517629539088622 -0.63935085083025545 3.9102919591402538 71 105 131 0.41644642786077674 23 7728 51 9800 50 8284
2199 1.6003000771636327 -0.60568780217169205 4.1255115165446954 39 30 47 0.82620005913502403 19 8252 51 9809 22 7037
2200 -0.097086858565679446 -0.42524524139228609 3.6176567203868477 167 168 189 0.54667053612251593 19 7836 51 9819 22 7033 18 6377 50 8518 49 6353 21 7011
2201 1.6038653539952157 -0.42448946852391273 4.1367736601900136 135 133 146 0.35831977519768632 19 8259 23 8830 51 9829 22 7463 18 6801 49 6573 48 9976
2202 -0.60617609787427518 -0.3619151321829786 3.6665198686034883 102 109 119 0.33180794356761106 23 8413 51 9837 21 7216
2203 -0.072404090383843961 -0.30070811320584301 3.6050554231044143 158 61 1 0.58766933934587962 23 8828 51 9842 22 7459 50 8528 21 7030
2204 0.68799356212252283 -0.25475178231360956 3.9288541798511036 64 75 137 0.88430400632289297 19 7880 51 9856 50 8531 49 6132 48 9536
2205 1.1380584494378096 0.19754906761135707 3.3989980848498962 19 96 143 0.33714793233395246 23 8490 51 9872 22 7111 19 7906 18 6437
2207 1.0039546874180258 0.21684717669246228 3.3700563596300439 28 96 142 0.44783874211169855 23 8493 51 9874 22 7113 18 6440 50 8558
2208 0.81524326892508736 0.60586292280042264 3.9885264165040479 28 19 14 0.91926229924074609 23 8509 51 9878 22 7133 19 7919 18 6461 50 8353
2209 1.2972583133239461 0.69834819526521619 3.6737768187010098 114 108 93 0.84124490956940989 23 8870 51 9879 22 7140 18 6847 22 7781
2210 0.46006337411553544 0.64259632937642253 3.9555201176009374 0 0 21 0.47380295320352883 23 8867 51 9881 22 7136 18 6462
2211 2.0076561519231451 0.84105369680499065 3.9273258806986031 122 66 65 0.27794650009307659 19 8592 51 9883 22 7789
2212 0.71130892599270112 0.86187310451401511 3.5650854058255099 62 79 86 0.99864336568279011 19 8307 23 8527 51 9889 22 7526 18 6858 50 8708
2214 1.1960712349953608 0.98364409040542067 3.7622858618824035 114 104 100 0.38351090808038529 19 8325 23 8892 51 9893 22 7534 50 8575
2215 0.49284104761795711 0.9325559347272081 3.511718528601703 51 41 39 0.92270344296661844 23 8534 51 9896 22 7166 19 8316 18 6862 50 8710
2216 1.1920470052648997 1.0707287473472666 3.7970991058347896 113 108 105 0.88721365226805249 23 8896 51 9898 22 7538 18 6867
2217 0.5016730907738769 1.0322014774985107 3.5411274959088321 41 27 14 0.57773036208698025 19 8327 22 7535 50 8713
2219 1.6691862979631056 1.3432456361665985 4.0252281404220689 10 9 15 0.8842457370697917 23 8555 51 9911 22 7199 19 7990 18 6531 50 8393 49 6223
2220 -0.15550319060633613 1.1687343128677088 3.3858577496190425 65 57 38 0.62748429413391482 19 7972 51 9916 18 6513 50 8390 49 6182
2221 0.12951739682323243 1.2919342929327868 3.5331413067975008 140 134 110 0.44865580436775349 19 8344 51 9921 22 7195
2223 0.5212500712914051 1.4873559424333447 3.7444584221236492 149 143 136 0.98249406479042822 23 8918 51 9923 22 7566 19 8357 18 6887 50 8589 49 6453
2224 0.63063114997060754 1.5158371644855078 3.7815577782834828 55 43 57 0.81282563731758573 23 8919 51 9924 22 7569 19 8361 50 8590
2225 -0.14930362449726112 1.4170104469570592 3.5028980993830952 84 74 47 0.36486477948489793 19 7995 51 9928 22 7206 50 8398
2226 0.11193042090913624 1.4856204358138385 3.603857214548428 111 73 84 0.48871573031799587 19 7999 23 8570 51 9929 22 7212 18 6548 50 8400 49 6204
2227 0.32972343351196443 1.5585693720776095 3.7052908061857317 69 69 64 0.81246902802268184 23 8922 51 9930 22 7573 19 8370 18 6896 50 8596 49 6464
2228 1.1867296793756537 1.779945906656589 4.113185753938823 140 175 129 1.0450870130331396 23 8926 51 9933 22 6679 18 6047 19 7486 50 8137
2229 1.0909289519301102 1.781406898386074 4.1373748128031913 73 82 91 0.59583333708917785 23 8070 51 9934 22 6678 18 6048 50 8407
2230 1.126367989576659 1.8003556020406914 4.1257933531039672 158 151 132 0.41697767703166466 23 8585 51 9935 50 8606
2231 0.049381692380788211 1.5967121526664829 3.6394914743934246 123 76 53 0.66726284007909975 19 8011 51 9937 22 7229 23 8581 18 6566 50 8403 49 6457
2232 -0.22797558647201288 1.5979672309489594 3.5342172385555961 132 128 124 0.71541173937938485 19 8375 51 9940 22 7230 18 6567 18 6898 50 8603
2233 -0.2529294072010323 1.6492402165508833 3.5323651205435653 2 6 12 0.82316457709416468 23 8928 51 9942 22 7579 19 8378 50 8608 49 6460
2234 1.2824432634460936 2.3461874760924952 4.3704713426546622 83 144 126 0.58045419674084286 23 8615 51 9952 22 7610
2235 1.1816362625210082 2.3361320782714556 4.3541610771656885 144 180 134 0.65734923966806558 23 8616 51 9953 19 8065 22 7285 18 6611
2236 -0.12778449534714897 1.9839047532420142 3.7591527396304918 107 103 93 0.55918740614044837 23 8607 51 9957 22 7257 18 6587
2237 0.49234740785806264 2.2026978131799106 4.0557945461995946 158 151 123 0.7316975086399089 19 8404 23 8618 51 9958 22 7603 18 6920 50 8620
2238 0.17454820209758082 2.1055358465471081 3.8882687865697965 125 113 96 0.38607080925489662 23 8611 51 9959 22 7600
2239 0.20321551355234602 2.1964682323708367 3.9371943445545168 34 31 33 0.42212714768899978 19 8405 23 8944 51 9961 22 7604 18 6921 50 8622 49 6492
2240 0.17823498061869941 2.2336841165676256 3.9287303074360715 119 107 86 0.60708207989487306 19 8061 23 8626 51 9963 22 7284 18 6610 50 8445 49 6255 21 6484
2241 0.75972065266716193 2.5077156757215042 4.290616675853669 148 135 129 0.42510814409900116 19 8415 23 8642 51 9967 22 7619 18 6935 50 8455 49 6511 48 9877
2242 0.49130882647642038 2.4817031018399782 4.1633759262800307 157 147 122 0.62012736272692082 23 8952 51 9972 22 7620
2243 2.1326353439746462 3.3941815070332928 5.3167459714012111 174 168 154 0.3465481191901934 23 8965 51 9979 22 7648 19 8443 18 6960 50 8650
2244 2.064948675102527 3.4071897647010307 5.3078389628027045 163 157 145 0.97895596045965372 23 8966 51 9980 22 7345 50 8483 18 6666
2245 0.18833026279551912 2.6322004110673727 4.0953610490190329 131 124 114 0.35789270103631354 23 8666 51 9982 22 7627 19 8420 50 8472 49 6279
2246 0.23102221541532397 2.6518249970003307 4.1274865699829402 23 24 29 0.4867484832738132 23 8669 51 9983 22 7629 19 8421 18 6940 50 8643
2247 1.8622688391788427 3.4316784555366691 5.2278368809093996 166 160 148 0.46828810371508767 23 8970 51 9984 22 7654
2248 0.74002435199821359 3.2429252425674568 5.1323357658257054 16 24 37 0.43437451326538545 23 8969 51 9987 22 7645 18 6957
2249 0.29048280533447979 3.382387095228534 5.0044434139806793 101 93 86 0.55627107199326098 19 8447 51 9993 22 7658 49 6527
2250 0.17447533527127762 3.4310906350978518 4.9595449659127882 99 71 59 0.52607707653840885 23 8978 51 9995 22 7354 19 8132 18 6678 49 6307 48 9696
2252 -0.028983782316457929 3.4755457521510418 4.9094841009126817 71 23 24 0.93330375764061768 19 8453 51 9998 22 6860 51 9726 50 8655 49 6306 48 9390
2253 -0.048552970939610501 3.5373313383504597 4.9019530753061611 92 83 76 0.53225766267852537 19 8141 51 10001 22 7660 50 8494
2254 -0.25800157996264039 4.508296954336406 4.2320884161338022 154 128 91 0.4085448711352353 23 8718 51 10011
2255 0.64785879575723715 -0.80065245284051523 3.8994159723024864 64 111 134 0.87062426075065946 23 9045 51 10036 21 7190
2256 2.0875500418831687 -0.85541910145015665 4.2169092364141552 141 133 146 0.53096279900995136 19 8238 51 10038 18 6770 48 9941
2257 1.8861554424374614 -0.4177979436360662 4.2019870079691906 55 37 53 0.36273670315682283 19 8262 51 10058 22 7468 48 9979
2258 -0.089247195211328068 -0.36973124780479621 3.6139857495933434 162 64 8 0.59216732868521338 23 8823 51 10059 22 7043 50 8522 49 6358 21 7020
2259 0.85860706201339132 -0.28886271651999862 3.9559918565112357 115 112 165 0.42183050558937057 19 8264 51 10064 22 7472 18 6806 48 9975
2260 -0.51473377879427773 -0.21844954030078367 3.315161788541078 111 114 126 0.27613369732487109 23 9077 51 10065 21 7354
2262 0.086256430135084217 0.16289096027269909 3.5634553541621474 170 175 172 0.54008775519857044 19 8287 51 10084 22 7498 18 6438 50 8556
2263 0.055351800048351607 0.16792890878958019 3.5673773576493737 171 175 172 0.3111588783268458 19 8288 51 10086 22 7499 18 6833 50 8696 49 6592 21 7241
2264 0.81132997007477059 0.25184323809174264 3.334955265766073 176 179 190 0.45437126603491673 23 8853 51 10087 22 7115 19 7327 18 6442
2265 0.98280236826004008 0.75167885704912596 3.5580388749280045 116 108 95 1.1929905004689889 23 8874 51 10095 22 7517 18 6849 19 8299
2266 0.62466171273660775 0.7893159870061579 3.4987586033340632 106 99 91 0.63795910502532738 23 8878 51 10098 22 7518 19 8582 18 6850 21 7252
2267 1.1512374745792089 0.8957286059898828 3.7079504252100288 131 122 113 0.89860727578601551 19 8593 23 8883 51 10100 22 7528 18 7102
2268 0.27734461722962023 0.82300990870135871 3.4371824697388385 49 45 44 0.90042528204156969 23 8881 51 10104 18 6475 19 7937
2269 2.0926902319887803 1.1762495326164186 4.1012601375762179 31 28 29 0.77015894296178156 51 10109 22 7800 18 7114 19 8760
2270 -0.0063878712956991768 0.9111105693187076 3.4711328489906066 44 0 2 0.58341810786108428 23 9131 51 10110 22 7791 18 7104
2271 -0.13411244489850921 0.9103079012903057 3.2914966360777544 26 19 20 0.38730656518114398 23 8891 51 10114 18 6491
2272 1.0974247235020873 1.3404464070184163 3.8609748494177913 54 40 35 0.85196556794597034 19 8762 51 10120 22 7960 18 7267 50 8792
2273 1.2847083777729393 1.3973335844389767 3.9615728903008578 132 120 104 0.56811959085525277 23 9138 51 10121 22 7807 19 8763 18 7121
2274 0.85662302627678655 1.4729925840429645 3.8403551011042532 25 23 28 0.59213436675425035 23 9139 51 10126 22 7809 19 8608 18 7122 50 8721
2275 0.59109409550999525 1.413519678180559 3.6464551388721294 61 50 64 1.1910901859663845 23 8915 51 10127 49 6441
2276 0.4471874840918616 1.5101362114952397 3.7095654322734322 146 139 134 0.71628175687573281 23 8921 51 10130 22 7568 19 8611 18 6892 50 8592
2278 0.13686297286150201 1.5406252414583144 3.6458478415396107 146 138 116 0.025325497539625687 51 10133 22 7572
2280 0.34277562529863792 1.8527647659693216 4.0051345983191506 99 40 24 0.62470587777034803 23 8930 51 10142 22 7591 19 8386
2281 0.55247433511058308 1.9085593030706842 3.9873491601560791 77 59 37 0.87836027278080797 23 9156 51 10143 22 7822 19 8773 18 7136 50 8801
2282 0.31690795856012011 2.1563789640060849 3.9770908317420228 153 147 131 0.85700573278664249 19 8629 51 10147 49 6663
2283 0.24766718533764032 2.2482859210494537 3.9810075388211987 144 134 124 1.0450298726481329 23 8945 51 10149 22 7608 50 8624
2284 0.26029732230707647 2.5816573060450079 4.1204325290224277 130 121 110 0.51313515437365942 19 8641 51 10154 22 7843 18 7153 50 8639 49 6671
2285 1.9783885962785082 3.4073992429347455 5.2717836231541924 170 162 148 0.56016967205362211 23 8968 51 10155 18 6964 19 8444 50 8652
2286 0.077532640308048906 2.5959710276308425 4.0485257721731287 68 54 45 0.79105290506421544 19 8418 51 10157 22 7625 50 8641 49 6272
2287 -1.2648378738587107 3.4422497278275137 6.5669552945987872 157 131 104 0.37486703391955051 23 8964 51 10161 18 6657 22 7641
2288 -1.4389444654068049 4.1897563376078599 5.0041548606768957 211 190 161 0.66926208945098864 23 8988 51 10167 50 8499
2290 0.02345770709907774 0.041389099264074747 3.5772245646282479 164 169 165 0.77853175744574343 19 8277 51 10213 22 7489 18 6826 50 8693 49 6588 21 7238
2292 -0.66722540028363941 -0.01561259629520817 4.2824283483220471 201 218 244 0.89970876656369203 23 9099 21 7361
2293 -0.038566472470146412 0.22993036843107351 3.5383208301220113 191 208 234 0.56953794336816466 51 10220 22 7944 18 7084
2294 1.9364336411568903 0.81513301344410038 3.8842026701865833 3 3 16 0.72150359062528369 19 8752 23 9254 51 10225 22 7954 18 7254 48 10294
2295 1.0881378939248991 0.75341434773109528 3.6262208463900865 49 35 34 1.0311788130798747 51 10226 22 7949 18 7249 23 9116
2296 0.10330463861307082 0.82533757586702494 3.4800082276775304 1 13 27 0.75507655524017636 23 9123 51 10233 21 7368
2297 0.92160219348541605 1.2221081316087832 3.7491317335319656 25 19 13 0.64638132424248651 23 9137 51 10236 22 7802 18 7117
2298 0.77080642329053839 1.4843858133509791 3.8430102393819667 26 37 57 0.5160060682579618 23 9141 51 10238 22 7810 19 8609 18 6886 50 8722
2299 1.3113311534042338 1.7767909657170031 4.1726229520987275 48 60 51 0.74710243213538896 23 9145 51 10242 22 7969 19 8769 18 7274
2300 0.65893239207705157 1.8551417442231661 4.1006589093364489 102 41 13 1.1340675925289603 51 10244 22 7590 18 6908 50 8731
2301 0.37121683440991937 1.9853028852276737 3.9348102592176573 48 78 55 0.66890012496441642 23 9269 51 10248 22 7974 18 7139 50 8733 49 6660
2302 1.3071553098724333 2.2910936587457678 4.3547638570237126 82 137 114 0.35310151434888648 23 9271 51 10250 22 7976
2303 1.2237465776781318 2.3443355898062284 4.3542611072584592 81 96 77 0.73793994983169497 19 8779 51 10252 50 8736 49 6762
2304 1.0476582127965153 2.4915166123411363 4.3583395386345742 35 64 85 0.70474831979454777 23 9165 51 10255 22 7979 19 8781 18 7280 50 8805
2305 -0.14862883304826588 2.4221879565193971 3.9043632043435212 27 33 6 0.50438776662008955 19 8635 51 10264 22 7839 18 7149 50 8742
2306 -0.093649348248434128 2.6932501203479831 4.0325741042691563 28 28 33 0.65641486979520847 23 9174 51 10268 22 7850 19 8646 18 7159 50 8748 49 6672
2307 -0.84969859243140322 3.6391407703963239 6.1156613102334569 172 147 107 0.41784523585539246 23 9283 51 10270 18 7170 22 7857
2309 -0.50911214281708794 4.0483470877396979 5.1116800202282953 186 158 118 0.80708128957986391 23 9291 51 10277 21 7396
2310 0.57125566039240538 -0.67933579097952013 3.8837688093821598 73 112 143 0.74516991441768121 23 9231 51 10293 49 6782
2311 0.74415649190242805 -0.21805078532672012 3.9390052837242338 66 76 138 0.71741660290054876 23 9244 51 10307 22 7936 18 7234 50 8775 21 7433
2312 -0.54217059388337163 0.28828639058451522 3.4954827797909518 183 181 206 0.79741399418659831 23 9248 51 10312 22 7774 18 6836
2313 0.70389868150794022 0.79480399768696719 3.5314633275297496 0 0 24 0.49962902093277534 23 9255 51 10319 22 7950 18 7250
2314 0.16734847750995396 0.92736135324408386 3.3990403059418619 18 37 43 0.62913281572769231 51 10322 22 8057 18 7353
2316 1.3680739564494573 1.7598076672291976 4.1503647854464036 181 182 177 0.52812505273530863 23 9264 51 10328 22 7968 18 7273
2317 1.7716326700357925 2.3025429575447562 4.5842980627238434 105 99 101 0.83999988117105007 23 9371 51 10334
2319 0.92887938909661749 3.332912388898035 5.1217192918994439 152 149 152 0.92062610899855113 23 9382 51 10344 50 8816
2320 -0.96878124787081799 3.4932938452322535 6.4167474949634391 202 176 141 0.6897143300949542 23 9380 51 10345 22 7989 19 8652 18 7289
2321 -0.19837304240118223 2.7144138312335837 4.0232419012478555 28 26 30 0.47325129825483214 23 9281 51 10346 22 7985 19 8786 18 7283
2323 -0.93381123238936758 3.5846521796083413 6.3181154554583241 195 166 134 1.1854105263430461 23 9451 51 10349 22 7993
2324 -0.77696626564654359 3.718078664222173 5.8594093786978556 186 163 122 0.61992619672457838 51 10350 21 7470
2325 -0.38954873067554152 4.2174123689443554 4.7430412647790412 183 164 134 1.5211876605061279 23 9386 51 10355 19 8803 22 8001
2329 0.85542530056292343 0.2605829582193665 3.3242579785922928 37 107 167 0.73397210588300232 19 8853 23 9348 51 10388 18 7334 50 8840 49 6800
2330 0.48602414637682578 0.86341446329771099 3.4546081373976483 0 0 8 0.3017067597258512 23 9357 51 10395 22 8054 18 7350
2332 0.092490595738989767 1.2764657870348792 3.5163478793444232 123 117 93 0.6611503896089912 19 8945 51 10403 22 8142 18 7360 50 8897 49 6853
2334 1.606016820476373 1.8714040170672159 4.2631041646685706 100 90 91 1.2355458829983459 23 9439 51 10406 50 8902
2335 1.451264787164853 1.8808641004559437 4.1933230190138469 129 64 68 0.098990227656331045 23 9367 51 10408
2336 0.013772358667252682 2.457740633792096 3.9873443662220374 140 118 33 0.71833853838781125 19 8957 23 9445 51 10416 22 8156 18 7444 50 8870
2338 0.25279361551521251 3.4010816284438543 4.9872889510709824 99 87 62 0.87028642856937088 23 9454 51 10422 50 8875
2339 -0.72987821358493099 3.8251183157128268 5.6561882184930861 186 162 128 0.31871316186488019 23 9457 51 10424 22 8093 18 7391 21 7586
2340 0.42387898651491529 0.092837005152129351 3.5359062412384996 171 192 222 0.72627814077820096 51 10439 22 8129
2341 0.3654548373674763 0.13083258055529415 3.7266563882257038 22 30 46 0.427704936128177 23 9420 51 10441 50 8888
2342 0.94955015554791744 0.74894502814163499 3.5663394574905136 108 105 92 0.61270284061558566 23 9495 51 10442 22 8198 18 7487
2344 0.98197198701770294 2.4347822714944707 4.3294487916930153 40 35 32 0.91233755766011893 23 9501 51 10452 22 8209 18 7496
2345 0.3327555205633228 2.5303044153072336 4.1139786978069584 34 35 24 1.2361569377097068 23 9447 51 10455 22 8158
2346 0.4648382871581741 2.6621299288627522 4.2313797056523734 191 191 189 0.55265537425673905 23 9507 51 10457 22 8213
2347 1.4134171675502576 3.5256831751983704 5.3065918668691783 144 145 149 0.87222837870371739 23 9510 51 10459 22 8215 19 9018 18 7503
2351 -0.26754522046340629 4.4865723081304481 4.1692184245790189 168 143 103 0.41803229577546352 23 9461 51 10464
2352 1.2855272503006692 -0.67585128735118483 4.0269173332867458 105 112 140 0.23483113939727995 23 574 51 4507 22 367 19 401 50 5409
2353 1.1731975865761051 -0.6636397949964441 3.9989789094926818 107 113 137 0.28456277291911675 23 580 51 4518 50 3541 49 3183
2354 1.2646416957790665 -0.56735284228668581 4.0167903096026771 141 149 172 0.75553596899688313 23 729 51 4648 50 5484
2355 1.3036042211222409 -0.49861047118323604 4.0466709484403225 153 159 183 0.47014861519096041 23 3389 51 4728 50 5536
2356 1.1804943805575148 -0.47224902144557362 4.0025739986057243 104 111 139 0.16846799887511457 23 864 51 4749 22 545
2357 1.3097503291593879 -0.46940389250537257 4.0464968169175002 102 108 133 0.24982136949871969 23 903 51 4758 21 2795
2358 1.2706425263712147 -0.457817357676856 4.0463748835660658 141 148 174 0.34076782657235177 23 3412 51 4779 50 5572
2359 1.2548060496830482 -0.44347453248556007 4.0242347093037232 95 105 130 0.40568406118731987 23 942 51 4796 50 3789
2360 1.1478136128862397 -0.3729187004010151 3.9952300345130607 98 105 133 0.32970274593572985 23 3460 51 4858 50 3865
2361 1.2748531069209137 -0.3409023400407421 4.0364736679677273 141 149 172 0.50845996130342208 23 1121 51 4901 50 5649
2362 1.2847283412200259 -0.66932140683352248 4.0419373949240471 153 160 188 0.30836039344900362 23 3266 51 6715 22 377
2363 1.2476962733888053 -0.4701500811959915 4.0192725597151782 138 148 173 0.40337768837928439 23 3400 51 6815 50 6625
2364 1.1578133719617649 -0.46155171390076438 4.0028079352052783 140 150 177 0.13553766317608604 23 3399 51 6821 48 7478
2365 1.510715323076441 0.16673086634859297 3.4975227382907494 145 171 206 0.49711124787778277 23 6968 51 8195 18 3631 49 5284 48 8604
2366 1.9476418819762413 0.65312814963431598 3.9241802243940422 13 0 9 0.28194456137122575 23 5667 51 8238 22 6538
2367 1.2403046015010113 -0.69036415573937138 4.0138898430043017 145 152 178 0.61984763171500645 23 7725 51 9419 50 8281 19 7165 49 6083 48 9482
2368 1.1829881146822347 -0.6843217963160082 4.0034577738140316 143 150 176 0.37060167192075966 23 7724 51 9420 22 6342 50 8282 48 9481
2369 1.1619451754782628 -0.35598019491838723 4.0044904108775627 133 143 172 0.31653765779555454 23 7814 51 9474 50 7969
2370 1.2711297633209733 0.17346530621983836 3.4325698045877062 18 96 145 0.25353460374008524 23 8487 51 9526 18 5833 19 7904 50 8340
2371 1.374905885744782 0.17791264528955494 3.4625922323749929 97 132 188 0.36768506179179566 23 7907 51 9527 22 6492 19 7315 18 5835 50 8013 50 8341 49 6156 48 9570
2372 1.3012850859171405 0.18967851934860322 3.4408147409229453 86 134 188 0.3937370210410096 23 7912 51 9529 22 6496 19 7321 18 5837 50 8342
2373 1.7180286573905272 0.47021368138149622 4.2894517384105999 43 41 54 0.6404471682254711 23 7936 51 9545 22 5625
2375 1.3157589902773981 -0.41077408889346395 4.0697568636493573 125 136 159 0.47960513771367874 23 9078 51 10198
2376 1.874410965322217 0.63821415533745385 3.8920880113961958 2 0 12 0.62858511161349073 23 9111 51 10223 22 7780
2377 1.9837712697901333 0.59880358333769546 3.9907920148956291 97 77 50 0.35331610275714581 23 9350 51 10315 22 8049 19 8858 18 7339
2378 1.4321041909641514 0.16111554839484454 3.4685588020408633 32 99 144 0.28904793286151698 51 10385 22 8045 19 8850 18 7332
2379 -0.73632026780579551 -2.7692640781616493 9.4007666013170859 133 128 160 0.61495869826949401 19 4707 23 6575 22 5296 18 3313
2380 1.2355975139290223 0.5510494809790808 3.9961713601962709 32 30 37 1.2247561530750486 23 7025 51 8234 22 5631
2381 -0.68866432489057372 -2.8279894744688745 9.4186229168739395 150 140 165 0.64348169202238592 19 6119 23 6563 22 5284 18 4617
2382 -0.28799817849087994 1.5859082445241699 3.4849262564399885 110 106 105 0.28870827395411053 19 8374 22 7228 18 6565 50 8602 49 6440
2384 0.23621202092780658 -0.043278992027453222 3.6519511476334632 167 76 4 0.84765654699440041 22 7484 51 9868 18 6822 49 6388 21 7049
2387 -0.49320031937207787 4.1266800777027868 4.8766240840180348 193 176 150 0.35231221646053129 23 9514 51 10462 18 7456
2389 0.78767348906446066 -3.3330513553292649 9.8079211067106069 103 113 125 0.2743514080634249 23 2917 22 28 18 23
2390 -0.917976016782863 -3.0832802607184657 9.5319604289600903 140 99 69 0.30028044952477911 19 2787 22 35 18 1641
2391 0.72801068730029328 -3.1701308421057011 9.7718254676061598 88 99 119 0.43088267718899903 23 2956 22 44 18 36
2392 5.4710904865919101 -3.8536981680178659 11.18060215752287 139 91 102 0.55573288724396674 23 71 22 49 18 26 21 6
2393 0.79746581214422652 -3.1675757055235598 9.8353764773423329 43 51 64 0.48131966326545744 23 2962 22 52 18 41
2394 5.3516156044390044 -3.7940743121490241 11.108155335049696 177 102 128 0.81373572777778369 23 2995 22 58 18 1630
2395 0.76329992828161253 -3.1147480606726128 9.8136516594997421 44 47 64 0.096345309757258635 23 2975 22 61 21 4061
2396 -1.6369971972088302 -2.7436314475607273 9.1243860987072516 122 109 127 0.36836403568331821 19 59 22 67 18 72
2397 2.4552645954003491 -1.150116437788455 4.2811667250473269 97 118 129 0.26662189433237693 19 75 22 98 47 5461
2398 2.7305666581034487 -1.2041983711647688 4.4018982693790374 106 113 115 0.5049808371251242 19 71 22 99 18 54
2399 -0.97803601636689563 -2.6649365329997794 9.3769757329242971 78 89 118 0.81507423047301819 23 88 22 114 18 124
2400 -0.80143484701123646 -2.6905559545571047 9.4302529688766956 60 72 98 0.80813089399964111 23 91 22 115 18 121
2401 2.6182517287549585 -1.1299982488127984 4.3308404036802131 104 109 110 0.56394660321737045 19 2860 22 118 18 69 47 5490
2402 2.6624200129937936 -1.1308869330933997 4.3408331864987302 133 139 139 0.6530070502522568 19 105 22 119 18 66 48 8324 47 7157
2403 2.7178101726569039 -1.1265870682440873 4.3588426631048538 92 101 99 0.72079478986262124 19 2867 22 126 47 5507 48 3148
2404 -0.85271044527798723 -2.6452482009514666 9.4074755502029035 126 137 168 0.65887487547701862 23 3041 22 127 18 132
2405 -0.86498797823819829 -2.6216804420962014 9.3969183469279649 75 85 121 0.57248688200097264 23 105 22 132 18 136
2406 2.6423704853796255 -1.0993271764186607 4.3375558911161702 114 123 120 0.61618837960669848 19 116 22 136 48 7260
2407 2.6908372328045376 -1.1052917595194571 4.3494601908732191 127 137 131 0.54021601343066161 19 115 22 137 48 7261 47 5522
2408 -0.38400726731609541 -0.81683025381876884 3.8512462924050364 148 154 173 0.24063253430787926 19 2899 22 138 18 1749
2409 2.586674448735768 -1.0856375503016338 4.3190584615500383 101 105 105 0.65858671422563386 19 119 22 142 18 1699 48 7264 47 5521
2410 2.7002404740551866 -1.0976447286078646 4.3552349952164082 82 94 87 0.26320645152118516 19 122 22 147 48 7267 47 7180
2411 2.5778038612413994 -1.0783443715575363 4.3215420291547568 128 136 138 0.55105427663064566 19 125 22 149 18 1701 47 5535 48 5521
2412 2.6828875164766877 -1.0867401967419856 4.3489400467537251 123 135 132 0.8471470178801721 19 126 22 152 48 5532 47 3037
2413 2.721952659645317 -1.0827699403516902 4.3625448578752826 88 102 103 0.48356213059569725 19 132 22 160 18 98
2414 -1.6440103644357715 -2.4574586473509794 9.1698909103869184 57 65 84 0.31107892664024245 19 169 22 161 18 163
2415 2.5993260468862149 -1.0621179889861443 4.3236676165828438 76 86 84 0.56402898363886955 19 134 22 164 48 7272 47 5552
2416 2.7752978513514512 -1.0777637605899129 4.3798591978892469 132 143 147 0.51444010811382357 19 140 22 171 18 101 47 7198 48 8358
2417 2.6765606503460608 -1.0484478877384802 4.3565725242684241 92 111 118 0.20489969651266227 19 2910 22 180 18 1725
2418 2.0582674254969544 -0.97236407502186117 4.2530092538393083 102 101 109 0.25487073192419912 19 171 22 186 18 126
2419 2.7267762617699756 -1.0142122884342066 4.3654147613480418 128 150 161 0.72123054590615454 19 2934 22 201 48 8375 47 7238
2422 2.5468364747212648 -0.93781219469433075 4.3061838604767733 121 135 135 0.98394311374364196 19 2973 22 244 18 1772 47 5650
2423 0.44341829369370611 -0.81176367815331152 4.1750562660740052 81 86 110 0.13523112400868939 19 266 22 251 18 203
2424 2.6713142615035372 -0.94685943355821389 4.3438870212210219 112 116 115 0.52218560639179246 19 229 22 252 18 156 47 5661
2425 2.6008755194023188 -0.92158628906212003 4.3299213511130681 104 110 106 0.30880105040249017 19 253 22 271 47 5669 48 5714
2426 2.5344819813751447 -0.91294030668178228 4.308187651272803 132 142 141 0.42946434958932223 19 2994 22 274 18 171 48 8401 47 7276
2427 2.5684765662016211 -0.9136447916567827 4.3183732022379235 111 116 111 0.4870714683570494 19 269 22 275 47 5670
2428 2.6350355098141405 -0.92048380257804796 4.3417352405749066 106 110 106 0.48114888924263793 19 264 22 276 47 5678 48 5719
2429 2.5483590315829616 -0.90424706940743249 4.3138972206889177 105 111 107 0.64585380385699953 19 271 22 281 47 3230 48 5718
2430 1.0281067019952994 -0.74389754515373796 3.972362352469196 123 135 161 0.16832697032517907 19 290 51 4408 22 284
2431 2.7527724304984424 -0.92634219593270473 4.3720222916268972 99 103 102 0.37979610667031627 19 279 22 289 18 175 48 7365 47 5693
2432 2.7819749824116968 -0.92797116363910126 4.3804054034568969 136 145 142 0.3350005838875233 19 2996 22 291 48 7372 47 7295
2433 1.0810833315809676 -0.73898288576625948 3.9780796207738693 157 164 190 0.53928123136672734 19 299 23 3212 22 294 48 5645
2434 2.5534821073065572 -0.89418428279458917 4.3134976425808347 128 136 132 0.58863980366088964 19 3001 22 295 18 187 48 7361 47 7286
2435 2.572486018171229 -0.8945694903565482 4.318648694894005 70 81 75 0.36697504665342401 19 3005 22 299 18 188 48 7364 47 7290
2436 1.1131937783584074 -0.73294591726425384 3.9850848031974277 127 134 160 0.32936760677344773 23 455 51 4427 22 302
2437 2.541363769337309 -0.88451467443934972 4.3103660756916362 70 81 75 0.23887784489521588 19 292 22 306 18 194 48 7371 47 7291
2438 2.6402785820398971 -0.89140945120327042 4.3444985963332501 118 134 134 0.25096868240731823 19 3013 22 310 18 1795 48 7386 47 7300
2439 2.5686198506408355 -0.8874096827393565 4.3529327666529429 115 127 123 0.13642146179000678 19 3015 22 317 18 1799
2440 1.0355733253719088 -0.70971914752924081 3.9532456585393558 153 163 188 0.60313539214063761 19 329 22 318 18 223
2441 2.0607634256179965 -0.82085897723293844 4.2180666511769704 148 143 145 0.42180252835870791 23 3223 51 4365 22 323 48 7355
2442 1.1677277122197456 -0.71860940639586035 3.9921028832205816 123 133 158 0.13975162568669283 19 334 23 484 22 324
2443 1.1028206433708507 -0.71271575947833088 3.9836351834466179 124 135 157 0.39605266176037163 23 489 51 4449 22 328 18 230 49 3152 48 5678
2444 1.1266573571177863 -0.71523368779223362 3.9843443046084643 122 132 157 0.23678236304008562 23 3226 22 329 50 5389
2445 1.199216301168236 -0.72506736024875806 4.0095423301933595 120 128 154 0.25486059724423221 19 3029 51 4441 22 330
2446 1.1035410612464669 -0.70227636025561746 3.9819847215790092 157 165 188 0.26029975526324162 23 509 22 334 48 5688
2448 2.5123272245971862 -0.79868201562994123 4.3055592096417046 28 73 91 0.65534857093165633 19 389 22 368 18 1816
2449 1.6272322621467961 -0.71377873028223071 4.1353695896471869 99 87 96 0.28119231989369309 19 408 23 586 51 499 22 371 18 255
2450 1.2808772660349113 -0.64910307552016544 4.0372481702600975 159 170 192 0.28247499750490485 23 3280 22 388 18 272 19 3088 50 6552
2451 2.50566039537904 -0.76564026744573033 4.3079415727355466 70 112 130 0.48163776981619383 19 429 22 390 18 257
2452 1.7022335124053112 -0.67709341861379291 4.1605474790168246 76 40 53 0.56950202432953601 23 3292 22 399 18 280
2453 1.5666102438437925 -0.65724284613253015 4.1192201933232306 54 42 56 0.56197827244311993 51 4546 22 403 48 5844 49 3218
2454 1.2250513627318007 -0.6106408506189378 4.0052499904716665 125 133 156 0.25958317210724502 19 464 22 411 49 3216
2455 2.5240142194763382 -0.73801483995661399 4.312281722852374 26 78 98 0.63924879776902976 19 457 22 412 18 1843
2456 1.7102012259332944 -0.64994813219174863 4.1585512242915836 77 61 71 0.25739294876617957 23 665 51 4561 22 429
2457 -0.40532861639010603 -0.56000057119361335 4.1005180665302712 95 98 121 0.22413723676233555 19 3121 22 430 18 335
2458 -0.32733314583822565 -0.56266547199038386 4.1076627949884621 75 65 89 0.86565186041198527 19 3119 22 434 18 340
2459 1.0768091008220284 -0.56749273347387796 3.983864572735174 152 162 189 0.14354778248984354 23 691 22 445 18 313 19 504
2460 1.1753266271052203 -0.56820661672921013 4.0004902659262047 128 138 163 0.19151469823263781 19 512 22 451 18 316 23 708 49 3238 48 5871
2462 1.5712210357432714 -0.60637067480421836 4.115752005711065 47 45 58 0.21590571077771784 19 3127 22 461 18 312
2463 -0.055245092062650408 -0.40894142652712057 3.6310077764413822 164 82 35 0.46008496851749658 51 4791 22 477 49 3219 21 2835
2464 0.028485327437542562 -0.41453707161156222 3.6527589771717888 78 17 3 0.4057980248242109 19 538 22 482 50 5548 49 3226
2465 1.12266507108541 -0.54138407941135913 3.9860135197670883 127 134 163 0.16510162628047992 19 529 23 749 22 483
2466 -0.069803622992060499 -0.39399039296949817 3.6240312202483307 129 74 64 0.36498143442484715 19 552 23 790 22 493 50 3772 51 1056 49 1845 21 2854
2467 -0.027859109952776018 -0.37220626617897873 3.6358342607067833 137 75 54 0.67654096595380553 23 832 22 513 18 390
2468 2.6598160317194752 -0.64199949318153449 4.3597265481188163 90 94 103 0.45055565105975015 19 560 22 521 48 6047 47 5903
2469 2.5441732569293745 -0.62238617080641068 4.3147441755529847 121 126 132 0.32015437309513661 19 3170 22 523 47 7396
2470 2.6739215283783184 -0.63872235881249573 4.3632728097210967 118 121 130 0.37991613615768888 19 3166 22 524 18 1902 47 7404 48 8511
2471 1.2280591815205244 -0.49894244407003757 4.0243457466443617 124 131 155 0.22187545019101462 19 573 22 525 49 3287
2473 1.1769145408478745 -0.49228715489195579 4.0045983414757425 117 129 154 0.77617465118582341 19 579 51 4729 22 530 18 369 50 3733
2474 0.6931296496112177 -0.43814669088057628 3.9233242986614036 105 117 166 0.34651146746522982 19 3179 51 1030 22 542 50 5571 49 3283 48 5915
2476 -0.0010236619811359593 -0.33230505203758504 3.6331998012139075 129 74 61 0.78482298135104145 23 923 22 555 18 411 50 3845 21 554
2477 0.1104906576280611 -0.30129443900152508 3.6603445838389312 87 16 0 0.44086023735892604 19 676 51 4930 22 600 50 3880 23 992 21 2968
2478 0.065033013758582781 -0.2760720537533406 3.6367270625685109 76 25 14 0.45219614467428482 23 3459 22 619 18 457
2479 1.198166256598161 -0.39996279736065227 4.0187922465164876 124 136 162 0.10843656524690733 19 708 23 1008 22 625
2480 0.078969637192413178 -0.26952025730186546 3.6490085622353785 147 75 62 0.55931491813717094 23 1061 22 627 50 3926 49 3318 21 616
2481 1.8675397730569028 -0.45656418619696754 4.2017709637699472 88 71 77 0.23868682337866573 23 3441 51 4792 22 636 18 431 19 717
2482 0.25141078799723937 -0.27685897831292278 3.6777118260150248 135 73 59 0.66456106711728069 19 735 23 1074 22 646 18 460 49 3329
2483 0.20387003760661754 -0.26722578864603713 3.6713087886534921 84 16 1 0.67197956022020433 23 3481 22 653 18 467 50 5670 49 3333 21 4558
2484 0.2762150366184225 -0.26011805859154635 3.6791764472042257 89 14 0 0.41906818965595888 23 3490 22 662 49 3344
2485 2.539435013746755 -0.48115127451891099 4.3247542941421706 79 81 93 0.48015913491987594 19 754 22 668 18 1950
2486 0.21214135475559381 -0.24501286013620588 3.6642721627929511 85 24 4 0.33486775308343741 19 771 22 672 18 489
2487 0.81936154092481439 -0.33102392523723206 3.9443395195305295 125 132 191 0.13286692791813523 19 765 22 673 21 2944
2488 0.02525551014035915 -0.22627769419409077 3.6269457408304544 147 86 64 0.50474420558607758 19 3245 22 677 18 496 49 3343
2489 0.24630843998575069 -0.24447667403168344 3.6734748334863094 70 14 1 0.95980451191258176 51 6936 22 680 18 494 50 6700 18 485 49 3354
2490 2.7184987545261299 -0.47990410490822549 4.3816069861649192 133 131 144 0.44460645536064075 19 3243 22 685 47 5994
2491 0.20929134089135643 -0.23009527819214864 3.6707347430479387 161 78 36 0.29157839927945606 19 3255 23 3518 22 698 18 506
2492 1.1541283873030732 -0.33662536087734396 4.0072118299730182 124 138 165 0.53478905325146819 23 1113 22 700 50 3904 51 1304 49 2005
2493 0.12540934186313057 -0.20617775168613306 3.6502393069726451 54 2 0 0.38520778403275613 23 3540 22 720 18 523 21 4594
2494 0.82316118793492643 -0.28717143302477671 3.9490099936880365 109 118 181 0.56794979768610698 51 1394 22 731 21 597
2495 1.3176772963556846 -0.30760328438066398 4.0544672792565937 158 172 199 0.2962293701869646 19 867 22 752 48 6151
2496 1.7476114078433778 -0.34600798261076654 4.1754171873608046 72 55 65 0.58979212771209133 19 864 51 4902 22 760
2497 1.1555095556084147 -0.26999747672958879 4.0115998062334999 156 170 197 0.52166401852069466 51 4994 22 772 48 6155 21 4555
2498 1.1566960594087208 -0.2606006258466072 4.0142958876182169 126 140 169 0.59472575529284888 23 1237 51 4998 22 775 48 3873 21 3000
2499 0.36413848267356574 -0.048298506843526462 3.6725921640415544 191 189 53 0.73363812816035812 19 988 22 802 50 5763 49 2062
2501 1.7252522359275413 -0.05572437462771121 3.7916267401675152 218 168 175 0.17520088659875224 19 1009 23 1338 22 827
2502 2.3775777930689426 -0.017175534530371434 3.7670570568366899 109 85 94 0.36347372685418816 19 3366 22 845 18 600 48 7615
2503 2.1598488098418875 0.0028412132932245371 3.736494499252522 124 69 65 0.11112628250981012 19 1033 22 846 18 602
2504 1.8240419608086693 0.048385231157753089 3.6080593519953963 150 82 84 0.47470041647682404 23 1380 51 5083 22 848 18 2069 48 7602
2505 1.8004977197024834 0.049652939454739892 3.602808259211423 145 82 85 0.31799545720176736 23 1381 51 1611 22 849
2507 0.34859556952668846 0.12190978535778924 3.6796077849736291 106 116 118 0.90734634906925493 19 3389 22 866 18 2092
2508 0.80504045391087098 0.16957641670478454 3.4472944760406805 161 197 247 0.2960950913326833 19 3396 22 873 18 639 50 6776
2509 1.4864539270897121 0.15826847643755634 3.4901014895397902 107 150 193 0.12568359623559541 19 1064 22 878 49 2102 48 4015
2510 0.011562550852339148 0.19359446601637126 3.556676028920732 110 118 131 0.18954314199339953 19 1072 22 890 18 665
2511 0.83622865542360481 0.21412049307942765 3.3528492198716209 77 150 217 0.32449974666433806 19 1075 22 893 50 5803
2512 0.012506981306443343 0.19708904261405194 3.5982750395495806 25 29 41 0.77881343560180749 19 1080 22 896 50 4122
2513 0.95648113728554141 0.23369939825683372 3.3496491606459888 87 138 191 0.82566070388335544 19 1091 22 912 18 664 48 6227
2514 0.92552166327694663 0.25115681637268505 3.3466261520858231 49 111 168 0.45205406096789857 23 1499 22 922 18 2111 50 4139
2515 -0.45412780728208879 0.29474894475732327 3.4530579431061197 189 206 232 1.1808431423030008 23 5620 22 925 50 4147 21 5709
2516 -0.56500725818646025 0.31583521315846941 3.4122568012295726 170 186 209 0.54403264485665837 19 1104 22 928 18 687
2517 -0.46836008253891415 0.54102230147420138 2.9159589160973898 154 163 180 0.35834066861365832 22 940 18 2139 21 6384
2518 2.5697589767828086 0.4509477403400432 3.9977645269097413 57 64 80 0.21315103060313031 19 5135 22 948 18 2141
